           1
 -7.1953237E-02 -8.5312076E-02  5.2029584E-02  4.5559704E-02  4.2173967E-02
 -2.9576136E-02  1.2389686E-02  5.1758360E-02 -3.0869268E-02 -4.7290195E-02
  8.5624494E-02 -2.2173839E-02 -7.4788198E-02  2.6345382E-02  5.1350560E-02
  3.7306596E-02  1.0053116E-02 -8.9671090E-02 -8.4264949E-02 -1.1112550E-02
  1.2802324E-02 -3.4253400E-02  5.1789317E-02  3.5404202E-02 -6.6389859E-02
  1.1982506E-02  6.6605814E-02  3.8907278E-02 -0.1124103     -1.8274851E-02
 -0.1139929      2.3058278E-02 -5.9160921E-03 -1.3594438E-02  7.0907250E-02
  9.7377822E-02 -7.2082050E-02 -1.0077431E-02  3.3853479E-02  1.8378281E-03
 -6.0522277E-02 -6.5733366E-02  3.9904779E-03 -6.9401637E-02 -7.8310043E-02
  5.0554313E-02 -1.9293478E-03  9.9574484E-02  3.3406178E-03  4.6205889E-02
 -4.0754337E-02 -5.8159404E-02 -1.7401904E-02 -7.4505366E-02  2.5692806E-02
  5.6615081E-02  2.8121555E-03  9.6998878E-02  4.8555240E-02 -2.7254758E-02
 -1.3919473E-03  1.8335029E-02 -3.3995483E-02  8.7051252E-03 -3.6210299E-02
 -6.5902211E-02  0.1503566      2.5401380E-02 -1.9925842E-02 -7.9955608E-03
 -4.7055520E-02 -4.0381357E-02 -4.5989171E-02 -1.2122497E-02 -1.4515589E-02
 -3.7608951E-02  8.6659446E-02  1.7067305E-04 -6.8761185E-02 -6.9955975E-02
 -1.4376799E-02 -4.7435793E-03 -7.8190006E-02 -0.1966759     -3.6549682E-03
  4.3670047E-02 -0.1664123      2.0560259E-02  2.9426649E-02  0.1218867    
  8.9971855E-02  5.6705974E-02 -5.2491263E-02 -9.2998743E-02 -9.8188944E-02
  5.7379915E-03  5.1002239E-04  3.9043102E-02 -4.2882826E-02 -9.2165805E-02
 -1.0378879E-02 -0.1629823      9.2327058E-02  7.8762405E-02  5.2129287E-02
 -2.7424462E-02  4.6141826E-02 -5.5031944E-02 -2.0064987E-02 -5.7640135E-02
  5.3644348E-02 -4.6102530E-03 -0.1279672      0.1190473      8.9733556E-02
  6.5363884E-02 -1.1941611E-02 -2.2616615E-03 -6.2918149E-02 -3.6252111E-02
  9.0296954E-02 -0.1335946      7.5395601E-03  2.8975205E-02  8.0786217E-03
  5.0248269E-02  0.1617139      4.2252269E-02 -0.1630500     -3.5214301E-02
 -4.8462279E-02  4.8371024E-02 -6.4960584E-02 -6.5345801E-02  4.1799862E-02
 -3.9102860E-02 -0.1255168     -2.5368927E-02  2.8712438E-02  5.6008883E-03
 -6.9669150E-03  2.3750556E-03  5.1446237E-02 -3.0677507E-02 -1.7418707E-02
 -1.0289908E-02 -2.2380009E-02 -5.3574402E-02 -1.1779342E-02  6.8125114E-02
 -3.2377049E-02 -8.6176783E-02 -4.2545147E-02 -4.8963170E-02  4.6923249E-03
  4.3110646E-02  1.8646872E-02  0.1525829      2.1161530E-02 -5.1558256E-02
  4.7228485E-02  7.6579796E-03  1.0895074E-02  2.8202964E-02 -1.2009798E-02
 -2.8048679E-02  3.5576601E-02  7.0155831E-04 -1.2297438E-02 -7.6533929E-03
 -7.9454020E-02 -2.4634700E-02 -8.5113056E-02 -1.5267133E-02 -0.1085264    
 -4.0941529E-02  5.0262108E-02  1.4954211E-02 -8.1338204E-02 -1.2995121E-02
 -2.8463371E-02 -7.1547506E-03 -0.1179196     -0.1502713      3.7905712E-02
  0.1101748     -0.1303730      7.1878403E-02  4.2310979E-02  8.6081270E-03
  8.3516486E-02  3.2237966E-02 -1.8259579E-02 -0.1704258     -9.7145081E-02
 -3.1257033E-02 -5.2571677E-02  0.1088393      3.0796630E-02 -5.3251944E-02
  8.1126459E-02 -9.2473090E-02  0.1166563      7.0821770E-02  7.9359338E-02
  2.8892612E-02  5.8207393E-02 -8.7509498E-02  7.1152523E-02  1.2354989E-02
 -0.1061052      4.1377015E-02 -0.1029657      0.1488015      5.4923169E-02
  1.5186871E-02 -5.6937672E-02  0.1279512     -1.1338253E-02  1.9548940E-03
  0.1640637     -0.1155102     -5.2823808E-02  3.1485090E-03  0.1317227    
  6.9323927E-02 -3.0328410E-02 -4.1863155E-02  1.7868355E-02 -2.7323622E-02
 -1.5804313E-02 -2.6778961E-02 -4.8898760E-02 -6.6557348E-02 -6.6725843E-02
 -0.1315109     -8.2662135E-02  5.0909959E-02  1.3826003E-02 -2.0854488E-02
 -1.2813997E-02  9.0869926E-02  2.5285587E-02  8.1557244E-02  7.9444826E-02
 -3.7542623E-02 -6.3127197E-02 -9.5407784E-02 -5.0151359E-02  2.3798211E-02
 -2.5942262E-02 -0.1046677     -7.0390373E-02  4.1744658E-03 -4.0942417E-03
  4.5741196E-03  4.2031672E-02  0.1333607      2.4755190E-03 -1.6660992E-02
  9.4660074E-02  4.4800956E-02  2.6375301E-02  3.4785133E-02  5.1739860E-02
  4.2989612E-02 -8.6888514E-02  1.0456244E-02  7.8462176E-03  2.6265789E-02
 -2.5945457E-02 -2.4360830E-02 -3.2861274E-02  1.9396225E-04 -3.1739671E-02
 -7.4153692E-03  1.2043019E-02  2.0029500E-02 -4.6832155E-02  4.6880641E-03
  1.5862368E-02 -4.3336041E-03 -3.5815146E-02 -3.5032127E-02  3.9169438E-02
  8.9032419E-02 -8.3421841E-02  3.3000238E-02 -2.5187094E-02 -8.0550425E-03
  9.1899082E-02 -4.4085197E-02 -6.2367222E-03 -0.1585881     -1.9779464E-02
 -2.7015677E-02 -6.3629933E-02  4.1766819E-02  0.1088696     -1.4487302E-03
  6.5228462E-02 -7.7828965E-03  0.1241672      2.2817748E-02  2.5039479E-02
  9.2235185E-02  5.2649076E-03 -6.3861348E-02  0.1381907      5.8108311E-02
 -0.1581031      3.7797507E-02 -1.0027945E-02  7.1391791E-02  8.9221876E-03
 -1.9633884E-02  1.3781706E-02  9.4736062E-02  2.9637728E-02  3.2284413E-02
  8.3130397E-02  3.2659721E-02 -4.3047033E-02  6.2792853E-02  0.1309353    
  6.7394143E-03 -0.2180429     -0.1232124      0.2221315      4.0436435E-02
  3.9907996E-04 -0.1401571      8.7728932E-02  8.3750345E-02 -0.1302781    
  2.3836058E-02 -5.2264472E-03  2.7335530E-02  2.8186075E-02 -3.1898834E-02
 -0.1513894      5.1602568E-02 -8.1917912E-02  4.7063243E-02  4.1211523E-02
 -1.3306548E-02 -6.9033772E-02  0.1282249     -7.0220861E-03  9.8019324E-02
 -2.3695745E-02 -0.1094817     -8.7755501E-02  4.2057492E-02 -6.0698511E-03
 -3.2434955E-02  5.3909838E-02  6.0171764E-02 -5.0741849E-03  4.1044842E-02
  0.1040832      0.1031661      2.0083650E-03 -1.1737918E-03  0.1008282    
  0.1137758     -8.1177041E-02  7.9720356E-03  1.1172306E-03  6.1660185E-02
  8.1140995E-02 -7.2377928E-02  9.5895818E-03 -7.0360966E-02  0.1068489    
  1.9112578E-02 -3.1036133E-02  8.1183970E-02 -1.5557946E-03 -1.5093969E-02
  1.1516144E-02  3.2604060E-03  5.5020902E-02  1.0042340E-04  1.3734007E-02
 -2.6592065E-03 -6.2934220E-02 -8.5231327E-02 -9.0260059E-03  7.4637339E-02
  0.1016772     -8.8764064E-02 -5.4636218E-02 -3.4916099E-02  4.9220126E-02
 -5.2363928E-02  3.6087269E-03 -9.1251105E-02 -7.3333606E-03  2.8021843E-03
  5.5655941E-02 -9.9696875E-02  0.1526981     -3.5801553E-03 -7.2672516E-02
  4.3467809E-02 -3.9661940E-02 -8.1515528E-02  4.1797962E-02  1.4526382E-02
 -6.3283004E-02 -3.6810704E-02 -4.4037402E-02 -2.7878683E-02  6.9193766E-03
  1.7442899E-02  6.1037585E-02  5.4003220E-02  2.6583413E-02 -3.9159171E-03
  1.9410014E-03  9.3884639E-02  7.9591423E-03  0.1024599      3.5229910E-02
 -7.1474589E-02 -0.1026566     -3.4784306E-02  0.1176665      2.2647509E-02
  2.7813178E-03 -8.6393803E-02  0.1098851      6.3763805E-02 -5.6950033E-02
  6.3954934E-02  2.1198833E-02 -4.6250753E-02  2.7379923E-02  3.8742848E-02
 -4.6412688E-02 -8.8675395E-03 -9.2848323E-02 -1.8347407E-02  3.0722350E-02
 -4.5019262E-03  1.3420518E-02  0.1711332      5.1896092E-02  0.1065974    
 -2.3398783E-02 -0.1096585     -9.3522474E-02  5.5093877E-02 -6.9017648E-03
 -4.6205536E-02  5.4620881E-02  1.8893901E-02 -1.4109577E-02  6.5215014E-02
  0.1025004      0.1310334     -2.4704892E-02 -3.2473151E-02  0.1151671    
  0.1436712     -2.6662376E-02 -1.8621834E-02 -1.9636264E-02  5.9814371E-02
  0.1416680     -0.1004317      8.4420107E-03 -0.1298676      0.1535219    
  3.2245152E-02 -5.5473637E-02  0.1352576      2.3253510E-02 -2.8929655E-03
 -2.9701160E-02 -3.8987063E-03  6.8044581E-02  9.9061187E-03 -2.3234284E-02
 -9.0956852E-02 -1.2536259E-02 -0.1435769      0.1074220      7.5515270E-02
  0.1217992     -5.1218934E-02 -8.9119583E-02  6.5197080E-02  6.7050785E-02
 -7.9097070E-02  4.2451251E-02 -0.1005179     -0.1245018     -1.3527981E-02
  0.1031595     -0.1704436      0.1120673     -5.0241882E-03 -0.1295938    
 -4.9327679E-02 -6.8930715E-02 -1.6277455E-02 -0.1145221      1.4928720E-02
  4.0953187E-03 -6.8464592E-02 -0.1311595     -9.9746421E-02  2.9549124E-02
 -4.7863854E-04 -2.6060609E-02  3.9693404E-02  2.9353920E-02  1.5423359E-02
  3.2739848E-02  4.5297451E-02  6.1013278E-02  3.0421516E-02 -5.6560063E-03
 -8.5185707E-02  1.8907828E-02  3.8010847E-02 -4.6281457E-02 -5.9655860E-02
 -9.0796240E-02  3.9859865E-02 -6.8441719E-02 -0.1272635     -3.0236810E-02
 -0.1121673      5.3139035E-02 -1.8886512E-02  3.2486793E-02  4.4479303E-02
  0.1389011      2.2365242E-02  1.2900795E-02  7.2375447E-02  4.1678350E-02
  1.0889454E-02  2.3851877E-02 -2.5085697E-02  1.2934049E-02 -6.3558891E-02
 -2.3944652E-02 -0.1091373     -8.9727156E-02  4.4854682E-02 -6.8238764E-03
 -3.4199268E-02  5.1605593E-02  4.8352748E-02 -1.6835622E-02  4.5087527E-02
  0.1111301      0.1118196     -2.2293415E-02 -9.2769843E-03  0.1117499    
  0.1220612     -3.4185283E-02 -1.0270332E-02 -5.2050427E-03  4.8519716E-02
  0.1137354     -7.3484354E-02  9.7928299E-03 -7.4588671E-02  0.1108938    
  3.1336505E-02 -3.2606386E-02  7.9100661E-02  2.9127870E-02 -4.2951503E-03
 -2.3786616E-02 -3.6494564E-03  3.8726475E-02  2.3052186E-02 -2.7550878E-02
 -7.4169643E-02  7.8623546E-03 -7.6748408E-02  7.3019743E-02  3.6503986E-02
  6.2853329E-02 -5.4790854E-02 -4.9686398E-02  5.3162675E-02  4.2154212E-02
 -2.8127166E-02 -1.7663745E-02 -4.4216689E-02 -7.0786536E-02 -4.8280746E-02
  5.3058602E-02 -0.1000546      1.3201224E-02  3.8948639E-03 -0.1170092    
 -3.5232082E-02 -9.5270433E-02  2.7358757E-02 -6.7549691E-02  1.6422020E-02
  1.6583811E-02 -2.5202824E-02 -6.9202229E-02 -3.3318240E-02  3.4906212E-02
 -3.1984721E-03 -4.6670120E-02 -1.3718016E-02  1.0910562E-02  4.0042549E-02
  3.6629401E-02 -3.7965879E-02  5.3256314E-02 -2.9480228E-02  9.8537439E-03
 -3.3003878E-02  5.1234894E-02 -1.8036610E-02 -4.6693686E-02 -2.7325543E-02
 -3.0355204E-02  5.3581316E-02 -9.9432833E-02 -4.1032225E-02 -1.3960879E-02
 -6.0682140E-02  4.6915956E-02  1.6102915E-03  1.2773746E-02 -7.8445189E-02
  2.6271850E-02  2.2644395E-04  4.5352843E-02  7.1860969E-02 -3.8318507E-02
  6.0913596E-02 -2.9638907E-02 -5.6937654E-02  2.8059848E-02 -6.1948963E-02
 -2.4615895E-02 -0.1081498     -8.3680175E-02  3.1067582E-02 -5.4384726E-03
 -1.8964138E-02  4.8541971E-02  9.4413616E-02 -1.8092735E-02  1.8201577E-02
  0.1316439      8.4688336E-02 -1.5025049E-02  2.8905924E-02  0.1072999    
  9.7696818E-02 -6.1936401E-02  1.0940082E-02  1.1585743E-02  3.0764785E-02
  6.5642111E-02 -3.7279159E-02  2.1103393E-02  8.5274028E-03  6.8814836E-02
  2.2988157E-02  7.2054551E-03 -1.9059537E-03  2.2590864E-02 -9.5811812E-03
  2.6747095E-03  6.8579707E-03  2.5439791E-02  1.2396999E-02 -2.0461453E-02
 -2.4422865E-02  2.2360649E-02  1.7552486E-03  2.4539890E-02 -1.8563829E-02
 -2.2438236E-02 -3.2577757E-02 -6.4721177E-03  2.2930883E-02  1.4463724E-02
  1.8456303E-02 -5.8293846E-02  5.5579405E-02  1.6287178E-02 -6.3166946E-02
 -1.0397785E-02 -1.4823299E-03 -6.8427451E-02  2.4667593E-02 -3.5749082E-02
 -2.7170690E-02 -3.7260637E-02  4.4908747E-02  2.9241201E-02  3.7818059E-02
 -2.2391776E-02  3.1606235E-02  3.5883088E-02  7.6688893E-02  1.8643323E-02
 -1.8749846E-02 -9.8193092E-03 -4.6807729E-02 -2.2892585E-02  4.9589574E-02
  3.4205336E-02 -5.6950469E-02 -2.0148957E-02 -6.8194352E-02  2.8326666E-02
  3.4971371E-02 -5.9529990E-03 -4.0108666E-02  2.0179410E-02  7.9229726E-03
  6.1930418E-02  2.3811396E-02  3.4949868E-03  7.7917919E-02 -2.0320620E-04
  7.0556290E-02  1.3281497E-02  3.6885384E-02 -4.1657183E-02 -0.1122422    
 -0.1221082     -4.5690827E-02  2.6951585E-02  3.2730445E-02 -7.5304680E-02
  2.9329976E-02 -5.0971515E-02  1.8068573E-02  2.3125005E-03 -2.3183316E-02
 -2.4461860E-02 -0.1086955     -8.4769160E-02  3.1294368E-02 -5.5158855E-03
 -2.0633627E-02  4.9253292E-02  9.4439693E-02 -2.0912105E-02  2.0843681E-02
  0.1429010      9.0742834E-02 -2.6760470E-02  3.2166328E-02  0.1153239    
  0.1064602     -4.9306419E-02  1.9224446E-02  5.8688563E-03  2.9290291E-02
  7.5801380E-02 -4.1834507E-02  2.7074460E-02  5.7351454E-03  8.5846730E-02
  1.1708836E-02  1.2161235E-02  2.3272946E-03  1.6297732E-02 -1.3640252E-02
  2.1344054E-04  7.0072873E-03  5.0542481E-02 -1.2252061E-02 -3.3205882E-02
 -3.1540118E-02  3.0492814E-02 -1.5928395E-02  2.6276868E-02 -9.7749531E-03
 -5.1941153E-02  2.5148056E-02  2.0894557E-02  6.6105045E-02  2.2347029E-02
  2.6981179E-02 -3.2562125E-02  8.4302507E-02 -2.2893537E-02 -7.0307516E-02
 -1.2610254E-02 -2.4765369E-02 -5.5778362E-02  3.5232563E-02 -7.2912796E-04
 -6.3723445E-02  4.1154061E-02  1.0449412E-02  1.0026606E-02  1.3053972E-02
 -3.5784051E-02  1.7247206E-02  4.4998828E-02  8.5569195E-02  4.1815247E-02
 -6.6458667E-03  9.4559982E-02 -0.1217403     -7.4901201E-02 -1.3046826E-02
 -4.3215496E-03  2.6635546E-02 -9.7783498E-02 -7.5700343E-02  5.5645001E-03
  8.5270926E-03 -1.1036185E-02  5.4641370E-02  2.3528931E-03  1.2891356E-02
  3.0245243E-02  3.4348082E-02  7.6596603E-02  6.3723601E-02  6.3201569E-02
  9.2912279E-02 -4.7144882E-02 -1.0423266E-02 -1.6798628E-02  2.5537891E-02
 -0.1154326     -2.6060075E-03  0.1309994     -5.5257291E-02 -3.2068100E-02
 -0.1478587      9.1276661E-02 -3.1661909E-02 -4.7691550E-02  5.8121331E-02
 -2.4569977E-02 -0.1081677     -8.3732575E-02  2.9436912E-02 -4.5660590E-03
 -2.0257678E-02  4.8835810E-02  9.8951191E-02 -2.2484848E-02  1.8505901E-02
  0.1490833      8.6501397E-02 -3.1337112E-02  4.1185681E-02  0.1129542    
  0.1047958     -4.1729286E-02  2.6581377E-02  2.8104093E-03  2.1184556E-02
  6.4472072E-02 -3.6542319E-02  2.6224425E-02  8.8224858E-03  8.1773534E-02
  5.1837517E-03  1.9197913E-02  5.3976378E-03  5.8640805E-03 -1.5108615E-02
  2.2139405E-03  1.1299043E-02  4.6920996E-02 -4.9476214E-02 -3.4668628E-02
 -2.1062247E-02  1.9828405E-02 -1.1008592E-02  3.5199720E-02 -1.5406483E-02
 -6.7857310E-02  7.9947300E-02  2.2018148E-02  7.0294738E-02 -5.3194109E-03
  2.4625173E-02 -6.1246711E-03  7.5805791E-02 -2.3254493E-02 -2.1207066E-02
 -2.0714261E-02  2.5664277E-02 -3.6274944E-02  9.0336576E-03  5.6513485E-02
 -4.5179944E-02  5.7047110E-02  1.0037238E-03 -1.8812103E-02 -1.4406951E-02
  1.3697570E-02  5.9446641E-03  4.5867465E-02  6.1006639E-02  2.2894543E-02
 -1.2489775E-03  9.2835233E-02 -0.1024117     -4.1036263E-02 -0.1080442    
 -3.8298670E-02  2.1859311E-02 -0.1037463      1.2345272E-02 -1.3629473E-02
  2.8429072E-02  1.5449726E-02  9.0505421E-02  7.1631314E-04  2.6664473E-02
  4.0047213E-02  1.4883864E-02  6.9145791E-02  6.3946180E-02  4.4077076E-02
  2.8263088E-02 -4.1839991E-02  1.2159102E-02 -3.1254612E-02  5.8589283E-02
 -1.8841872E-02  2.3561900E-03  0.1086633     -3.9863814E-02 -1.6216462E-02
 -0.1253059      0.1342476     -8.7896712E-02 -4.7146700E-02  8.2141623E-02
 -2.4865683E-02 -0.1076384     -7.8982107E-02  1.7133322E-02 -4.4419551E-03
 -1.0467109E-02  4.5428954E-02  0.1334553     -2.0473855E-02 -2.1530034E-03
  0.1624012      6.2949501E-02 -2.1665361E-02  7.0262663E-02  0.1005994    
  8.7361135E-02 -6.1896048E-02  4.3428618E-02  1.1099362E-02  1.7812659E-03
  1.3913395E-02 -9.9408031E-03  3.8004071E-02  5.4589987E-02  5.4892093E-02
 -3.4489417E-03  4.3644387E-02 -5.2726056E-02  5.5044461E-03 -2.7402164E-02
  1.8220132E-02  2.5897784E-02  2.5549116E-02 -9.1177501E-02 -1.6490448E-02
  3.3547707E-02  4.7025760E-03  3.3352043E-02  1.1791155E-02 -5.2354936E-02
 -0.1278557      0.1187885      4.1499003E-03  3.0729121E-02 -5.7369173E-02
  9.6327979E-03  1.3468016E-02  0.1194108      3.1965517E-02  2.1282554E-02
 -6.1860524E-02  0.1190814     -8.2780614E-02  1.6465816E-03  0.1689348    
 -2.4646154E-02  0.1122999      2.6241941E-02  6.9370875E-03  3.4516383E-02
  5.0419506E-02  3.9713997E-02  9.5041014E-02  8.8365689E-02 -2.1058798E-02
 -2.7344605E-02  2.0017484E-02  1.8041769E-02  4.4255808E-02 -0.1170993    
 -2.6262794E-02 -4.5208201E-02 -6.3113026E-02  4.3706916E-02 -1.5132790E-02
  0.1310287      3.6615398E-02  3.4962919E-02  2.1230426E-02  4.8881114E-02
  7.8446031E-02 -2.9032169E-02  3.1429872E-02  4.4074852E-02 -5.7384349E-02
 -3.6573019E-02 -1.9940386E-02  6.1616663E-02 -7.2426863E-02  2.6722234E-02
  5.7660475E-02 -7.7331856E-02 -0.1133838     -1.0975073E-02 -3.9256299E-03
  3.9852358E-02 -7.6597584E-03 -4.1031778E-02  3.8644595E-03 -2.6609819E-02
 -2.5096077E-02 -0.1063767     -7.7748753E-02  1.6196534E-02 -4.7105090E-03
 -8.5282251E-03  4.2437147E-02  0.1316871     -1.9310841E-02 -7.0991609E-03
  0.1497624      5.3909890E-02 -1.7493330E-02  7.3991336E-02  9.5684543E-02
  7.2098084E-02 -6.1780475E-02  3.8414825E-02  1.6368063E-02  4.7996840E-03
  7.3296092E-03 -2.0203015E-03  3.3819102E-02  5.3711675E-02  3.9390687E-02
  2.0962344E-03  2.9863471E-02 -4.5132820E-02  1.1493635E-02 -2.6001111E-02
  2.4030065E-02  2.3644278E-02  1.9676086E-02 -5.6878380E-02 -1.4100010E-02
  2.8387859E-02  7.1383566E-03  3.0150766E-02 -1.4618703E-02 -3.8559239E-02
 -0.1036528      5.7019114E-02 -1.2456762E-02  1.4342163E-02 -5.7868931E-02
  1.4495140E-02  1.5214057E-02  2.9405912E-02  2.1480035E-02  4.1457597E-02
 -7.4006163E-02  0.1229936     -8.2796574E-02 -2.0647353E-02  0.1392825    
  1.2502283E-02  4.0304903E-02  2.1548457E-02  5.4376782E-03 -6.9317906E-03
  7.9907209E-02  3.4608129E-02  4.7260039E-02  4.9804606E-02 -4.9192205E-02
  7.4747684E-03 -6.6850103E-02  6.6452943E-02  4.0579870E-02 -4.9963314E-02
 -1.3309226E-02 -9.6882895E-02  3.2841671E-02 -6.8971273E-03 -2.9457206E-02
  0.1064775      9.7773507E-02  1.2907976E-02 -5.8935598E-02  1.1501539E-02
  6.9892615E-02 -9.2579499E-03 -5.6641866E-02 -3.1008823E-02 -3.9089858E-03
 -8.6170711E-02 -3.7544436E-04  7.6763608E-02 -5.9376214E-02  2.5443577E-03
  0.1530266     -3.0118588E-02 -0.1140857     -7.5682923E-03  2.9112818E-02
  0.1360072     -6.0079634E-02 -8.5667282E-02 -5.7874662E-03 -8.5369311E-02
 -2.5055351E-02 -0.1058489     -7.7344246E-02  1.7213434E-02 -5.9954044E-03
 -4.1040569E-03  3.9529525E-02  0.1287319     -1.3441127E-02 -1.7335925E-02
  0.1199081      3.9647702E-02 -4.8919395E-03  8.1778675E-02  9.2408769E-02
  3.9499886E-02 -7.8253962E-02  3.5506353E-02  2.9569346E-02  2.1083461E-02
  2.3530300E-03  1.4949162E-02  2.2048445E-02  5.6427103E-02  7.7991583E-03
  1.3510640E-03 -1.1608467E-03 -2.5088763E-02  1.6018557E-03 -1.4156655E-02
  4.8552338E-02 -6.6436296E-03  2.8169166E-02  4.4535004E-02 -7.9625836E-03
  1.1841919E-02  1.4568492E-02  6.2143374E-03 -0.1052477      1.1430031E-02
 -2.5614621E-02 -6.1969511E-02  1.0676828E-02 -2.4395747E-02 -1.7031774E-02
  6.8073004E-02  7.0303162E-03 -0.1309786      4.1102249E-02  5.2614335E-02
 -0.1010179      0.1036941     -5.5042420E-02 -5.0655328E-02  1.7034812E-02
  8.2482412E-02 -8.6854950E-02 -8.7709120E-03  3.0745735E-02 -9.7483940E-02
  8.6302459E-02  5.3656520E-03 -2.4071993E-02 -3.2616921E-02 -5.3002194E-02
  4.9008779E-02 -9.4602689E-02  4.2985376E-02 -4.6153325E-03  3.5925135E-02
 -5.1031411E-02 -7.8117706E-02  0.1109773     -4.0775008E-02 -8.0112495E-02
  1.6005759E-03  0.1069285     -7.8172926E-03 -0.1178061     -1.2637696E-02
 -7.8477192E-04  8.8955900E-03 -9.8394215E-02 -5.5068154E-02  0.1185485    
 -1.8228000E-02  8.2265139E-03 -3.6737155E-02  1.7292995E-02 -1.1751515E-02
  8.8732734E-02  6.9272406E-02 -2.8132008E-02 -8.4087521E-02  2.5292801E-02
  9.5970407E-02 -8.8488698E-02 -4.6786439E-02 -1.4692848E-02 -3.5556678E-02
 -2.6026867E-02 -0.1030973     -7.0530750E-02  3.0901416E-03 -5.8038332E-03
  1.1605286E-02  3.1745270E-02  0.1553162     -8.7398347E-03 -4.5309830E-02
  0.1037196      9.5832488E-03  7.3437472E-03  0.1050466      7.6129355E-02
  7.9222117E-04 -8.6871728E-02  3.6402319E-02  3.6482416E-02  1.4895081E-02
 -3.3146393E-02  4.0069193E-02  7.3836851E-03  7.8091614E-02 -4.6563722E-02
 -1.1507085E-02 -6.9394256E-03 -2.6072716E-02 -1.7195990E-02 -2.5870653E-03
  6.2549055E-02 -2.5541123E-02  4.5115524E-03  8.1273243E-02  3.1653240E-03
  1.9316724E-02  1.5199431E-02  2.7859917E-02 -0.1413624     -8.9966245E-03
 -1.0216718E-03 -5.5231918E-02  4.2674731E-02 -5.9702527E-02 -9.0049636E-03
  7.8989170E-02 -1.6059552E-04 -0.1202990      7.1684867E-02  4.5546275E-02
 -9.8321997E-02  0.1053354     -5.9958465E-02 -4.6523243E-02  9.0291873E-03
  0.1067926     -5.5292759E-02 -1.7948397E-03  5.6269530E-02 -8.5705176E-02
  5.5059507E-02  2.7008627E-03 -1.3985670E-02 -5.1455762E-02 -3.5602715E-02
  1.2569233E-02 -4.8906706E-02  2.9832532E-03 -2.2796279E-02  7.3162630E-02
 -5.5319637E-02 -8.9154979E-03  8.0147013E-02 -2.6222225E-02 -8.6340345E-02
 -3.5735648E-02  3.9526653E-02 -3.8094573E-02 -7.7112757E-02 -1.8457113E-02
 -9.3082093E-02  1.1956311E-02 -7.2266422E-02 -7.4059896E-02  0.1042745    
  3.3243567E-02 -4.4157166E-02 -0.1320859      0.1038487      2.5812363E-02
 -3.8780060E-02  6.5715112E-02  1.1343474E-02 -8.6910360E-02 -3.7899856E-03
 -3.4483682E-02 -4.1186180E-02  8.6227402E-02  2.6989222E-02  4.0040743E-03
 -2.7405318E-02 -9.9497229E-02 -6.2164266E-02 -1.5172218E-02 -5.5358075E-03
  3.0057075E-02  2.1285452E-02  0.1802545     -6.6042477E-03 -7.5524002E-02
  8.4178381E-02 -2.0182798E-02  1.2612455E-02  0.1173896      5.1742863E-02
 -3.4868181E-02 -7.0262074E-02  2.1608070E-02  2.4589757E-02 -6.5550795E-03
 -6.6763259E-02  5.5554628E-02 -2.4373148E-02  7.2524182E-02 -0.1115788    
 -3.0119250E-02 -1.3418703E-02 -4.7626253E-03 -4.3108348E-02  1.9722506E-02
  4.9784731E-02 -5.3822752E-02 -3.8965698E-02  9.2892408E-02  1.2597741E-02
  1.4331135E-02  2.0341741E-02  6.2779196E-02 -9.4828524E-02 -6.5291025E-02
  3.6702707E-02  1.7289186E-02  6.4921521E-02 -7.0416719E-02 -2.7410816E-02
  4.8497111E-02 -1.3383190E-02 -1.9764276E-02  6.8283588E-02  3.5173379E-02
 -2.1276329E-02  8.3968915E-02 -5.3762089E-02 -2.8226646E-02  7.5036394E-03
  7.6622099E-02  6.9343001E-03  4.4183765E-02  2.0385573E-02 -2.2145668E-02
  1.1259988E-02  8.2061691E-03  2.0760598E-03 -9.0551428E-02 -8.7025743E-03
 -3.7428785E-02 -1.7593533E-02 -3.8074989E-02 -1.8734621E-02  7.6904409E-02
 -1.8093778E-02  4.0141743E-02  2.8640011E-02 -2.5142210E-02 -2.7413607E-02
 -5.5470169E-02 -5.4392733E-02 -3.5766579E-02 -1.3477961E-02 -4.1605726E-02
 -0.1247512      1.1932907E-02 -4.4761650E-02 -7.1929984E-02  1.0836972E-02
  2.3765953E-02 -2.3318123E-02 -6.2727734E-02  0.1020830      1.6984122E-02
 -5.3454082E-02  2.2921721E-02  5.3593028E-02  2.2098558E-02 -9.0784123E-03
 -5.9359524E-02  2.2081524E-02  0.1102460      4.4609290E-03 -3.2884814E-02
 -2.9136913E-02 -9.4474360E-02 -5.4785423E-02 -3.0723792E-02 -5.6145857E-03
  4.3313894E-02  9.9102426E-03  0.1827293     -4.9817609E-04 -9.3108803E-02
  5.0746899E-02 -3.6056273E-02  1.3517770E-02  0.1130769      3.0296968E-02
 -6.0052525E-02 -3.3139452E-02  4.6011978E-03  5.1750168E-03 -1.7545458E-02
 -7.6989226E-02  5.0659750E-02 -6.1081618E-02  2.9258693E-02 -0.1530308    
 -4.9311157E-02 -3.9164640E-02  3.6740430E-02 -6.8639793E-02  3.1621046E-02
  2.9937534E-02 -8.6571053E-02 -5.4693632E-02  0.1000055      2.4025423E-02
 -1.5869223E-03  2.4084907E-02  5.6029495E-02 -6.1453309E-02 -7.8152820E-02
  7.7749275E-02  6.8255909E-02  7.2654448E-02 -3.9723787E-02 -3.4271847E-02
  1.4052778E-02 -9.5781125E-03  3.1556796E-02  1.7703610E-02  2.0174456E-03
  4.3792449E-02  5.2862512E-03 -1.8511869E-02 -3.3312878E-03 -3.3502724E-02
  9.6975574E-03  5.9996840E-02  4.6571683E-02 -3.9135471E-02  8.8484716E-03
  3.6475002E-03 -9.0630148E-03 -9.9013895E-03 -0.1587328      1.2857815E-03
 -3.6130425E-02  2.8340370E-04 -5.1606666E-02  7.5574866E-03  4.2190965E-02
  1.7829619E-04  7.5211167E-02  1.6243454E-02 -2.4109399E-03  2.5235249E-03
 -8.5825026E-02 -5.3486083E-02 -9.3355263E-03  2.6387401E-02 -2.5787128E-02
 -7.6842196E-02  2.2514828E-02 -2.0844249E-02 -2.1869872E-02 -3.1656165E-02
  1.4910894E-02  2.0189533E-02 -3.6178576E-03  4.5700755E-02 -8.0805784E-03
  8.2848333E-03 -2.2487324E-02  5.5766765E-02  7.3590174E-02 -1.2786461E-02
 -8.3858296E-03  6.6478804E-02  3.6328603E-02  1.5062329E-02 -2.5428858E-02
 -3.0910563E-02 -8.8766448E-02 -4.9027633E-02 -4.0660985E-02 -5.0668153E-03
  5.0516937E-02  2.2494081E-05  0.1713542      7.5751259E-03 -9.8524094E-02
  1.8497450E-02 -4.0050697E-02  1.0248771E-02  0.1028305      1.9971967E-02
 -7.1685515E-02  1.2335000E-03 -6.4145327E-03 -1.3013188E-02 -1.9200234E-02
 -6.9134399E-02  3.6339510E-02 -8.3376288E-02 -1.8582232E-02 -0.1583423    
 -6.5409563E-02 -6.5748401E-02  6.4488292E-02 -8.8198349E-02  2.9970801E-02
  1.8267766E-02 -0.1143663     -3.3930898E-02  0.1103453      4.0691052E-02
 -2.2028124E-02  2.9692175E-02  2.0959180E-02 -5.9052546E-02 -5.8572255E-02
  8.5994050E-02  8.8153586E-02  7.4940458E-02  1.0910344E-02 -2.7110875E-02
 -9.6910130E-03  4.2645545E-03  5.0241351E-02 -4.3756321E-02 -4.1184425E-02
  7.5751603E-02 -9.6874349E-02  2.2170270E-02  2.4667347E-02 -9.5500894E-02
 -7.8320265E-02  0.1095031      1.3474126E-02 -9.7384609E-02  1.4868063E-04
  8.6947680E-03 -3.8615905E-02 -2.3800056E-02 -0.2093184     -9.6107731E-03
 -1.0018432E-02  7.3799947E-03 -3.4478717E-02  2.8556732E-02  1.5082329E-02
 -1.8680317E-02  9.6403353E-02  1.3383647E-02  1.1929450E-02 -7.2069201E-03
 -8.4690832E-02 -9.4713075E-03  2.0815993E-02  4.1130204E-02  3.1879444E-02
  1.8812532E-02  3.2061234E-02  3.6135618E-02  3.0391991E-02 -3.2688051E-02
  1.1928618E-02  5.4904420E-02  9.1412151E-03 -5.2856799E-02 -2.0458704E-02
  6.6811927E-02 -6.9629788E-02  4.2316467E-02  1.8066498E-02 -8.3999420E-03
  4.7404613E-02  4.4796430E-02 -3.2879267E-02  3.2610171E-02 -2.4812998E-02
 -3.3604220E-02 -8.1222758E-02 -4.3130532E-02 -5.3203590E-02 -4.1522225E-03
  5.7127278E-02 -1.0324080E-02  0.1549493      1.7005077E-02 -9.6073665E-02
 -2.1172075E-03 -3.3039946E-02  1.9351220E-03  7.9775088E-02  1.3481188E-02
 -7.5766288E-02  4.8335791E-02 -1.5956413E-02 -2.0246927E-02 -1.9646376E-02
 -5.5395953E-02  1.4707320E-02 -9.1067687E-02 -5.0119020E-02 -0.1421897    
 -5.4749999E-02 -6.2664554E-02  5.1076908E-02 -7.9986215E-02  2.3004191E-02
 -3.4470879E-03 -7.7254072E-02 -2.4374209E-02  6.6136643E-02  3.9147831E-02
 -1.2704099E-02  3.4526810E-02  1.5905803E-02 -2.6406767E-02 -2.7977254E-02
  5.3354505E-02  6.6745795E-02  4.3464400E-02  4.0536009E-02 -3.0489024E-02
 -3.9081715E-02  1.0751120E-02  3.8155127E-02 -6.1605372E-02 -5.6969095E-02
  7.5790137E-02 -0.1324347      3.3635747E-02  3.4555737E-02 -9.1305092E-02
 -0.1179343      9.3129143E-02 -2.2661531E-02 -0.1107266      7.8805061E-03
  2.7787855E-02 -3.4947399E-02 -2.6181156E-02 -0.1328930     -3.1946179E-02
  5.9841029E-02  8.5854614E-03  1.3520418E-02  3.7871495E-02 -1.0602042E-02
 -7.3724031E-03  6.0851861E-02 -2.7308087E-03  1.2771649E-02 -1.5649937E-02
 -4.8258387E-02  6.7750819E-02  7.9376198E-02 -2.0832654E-02  2.4473215E-02
  9.5833704E-02  4.6010125E-02  6.9557257E-02  6.0384978E-02 -2.0367490E-02
  1.6565358E-02  7.6890275E-02  5.5594694E-02 -0.1050405      2.3785139E-02
  0.1040820     -0.1028587     -3.1723283E-02 -1.0166659E-03 -1.2487853E-02
  3.9896429E-02  4.2517625E-02 -8.4594026E-02  9.3746996E-03 -3.0749146E-02
 -3.6464721E-02 -7.4669294E-02 -4.0507615E-02 -5.7241566E-02 -3.8010150E-03
  6.4501062E-02 -1.7161606E-02  0.1305346      2.3956966E-02 -9.2878707E-02
 -1.2721742E-02 -2.0852666E-02 -3.4113512E-03  4.2480882E-02  2.7761819E-02
 -7.8905053E-02  8.6572781E-02 -4.5383204E-02  1.5763743E-02 -4.2729070E-03
 -1.1850097E-02 -7.8950152E-03 -9.5292576E-02 -3.8170595E-02 -0.1273463    
 -7.7689411E-03 -2.4663720E-03 -7.5544962E-03 -2.1225296E-02  4.7165670E-02
 -4.4594381E-02  1.0372994E-02 -3.7634078E-02  4.2955647E-03  2.1645967E-02
 -2.4889566E-02  6.0135543E-02  5.9224039E-02  2.1690568E-02  2.0869922E-02
 -5.9498260E-03 -4.2196337E-02 -2.3890428E-02  6.8303593E-02  4.7368240E-02
 -5.0701916E-02  4.9179774E-02  1.0348322E-02 -3.6637604E-02 -7.0077088E-03
  3.5957579E-04 -0.1487349     -8.5469419E-03  8.0194669E-03 -4.7442459E-02
 -5.9807774E-02 -5.7229221E-02  4.9519435E-02 -9.6565187E-02  2.1466471E-02
 -1.2154457E-02 -4.2426407E-02  4.3553852E-02  8.6168805E-03 -5.6190223E-02
  4.3069605E-02 -1.0313652E-02  3.5606761E-02 -2.2419665E-02 -2.4802197E-02
 -4.1431926E-02 -2.3391211E-02 -1.6605787E-02  6.4255118E-02 -1.9183362E-02
  2.0103933E-02  2.6404705E-02 -7.0838206E-03 -4.6459947E-02  5.3525832E-04
  0.1073664      2.0281652E-02  6.6854343E-02  2.4444725E-02  2.2763645E-03
  1.0047156E-02  4.3743458E-02  0.1296097     -5.2028544E-02  5.3717472E-02
  3.7617359E-02 -3.7110474E-02 -5.9561953E-02  1.3154026E-02 -4.0093146E-02
 -5.6299493E-03  8.8573754E-02 -8.7083448E-03 -8.3411105E-02 -7.7136620E-03
 -3.8309440E-02 -7.2117470E-02 -4.1648604E-02 -5.5961166E-02 -5.0993650E-03
  7.3928624E-02 -1.9781543E-02  0.1116635      2.8204383E-02 -9.8780282E-02
 -1.0158334E-02 -1.2292575E-02 -4.7638905E-03  8.0021955E-03  5.2660462E-02
 -7.9351790E-02  0.1052275     -7.2392605E-02  7.6365538E-02  2.2942705E-02
  4.9672190E-02 -2.6312292E-02 -9.2553601E-02  9.0382714E-03 -0.1268638    
  2.5914202E-02  8.9566164E-02 -7.9509974E-02  5.0580870E-02  0.1034141    
 -0.1105279      8.8734642E-02 -6.4296536E-02 -8.1360325E-02 -4.5757326E-03
 -3.9125118E-02  9.4800852E-02  9.1626018E-02  6.5819427E-02  0.1011307    
 -7.3702112E-02 -0.1330488     -6.8526380E-02  9.8278202E-02  0.2042222    
 -3.1070216E-02  0.1390280     -7.7214860E-03 -2.1339808E-02  0.1091599    
 -8.5010961E-02 -0.1233187     -1.0242550E-02 -2.2200618E-02  1.0525072E-02
  3.4497894E-02 -0.1843460      0.1327433     -2.4994222E-02  5.0316885E-02
 -9.6397929E-02 -6.2936179E-02  0.1541645      8.2270786E-02 -1.3144770E-02
 -7.3034488E-02  4.8137639E-02  1.5009899E-02 -6.9095589E-02 -4.5713890E-02
 -0.1043442     -4.6922568E-02 -2.5551900E-02  5.0187986E-02  1.7207272E-02
  4.8723511E-02 -0.1128377     -0.1312470      1.8215593E-02  9.1260402E-03
  9.2119575E-03 -3.5712276E-02  3.0030994E-02 -7.8090541E-02 -2.4443209E-02
  6.8402127E-04 -1.1989973E-02  0.1362021      7.2555873E-04  4.6803046E-02
  7.1390956E-03  4.7854189E-02  4.3023109E-02 -9.2796301E-03 -4.0955186E-02
  3.9669100E-02  6.8733379E-02  3.6068320E-02 -0.1286477     -6.2929668E-02
 -3.9166782E-02 -6.8616413E-02 -3.9617360E-02 -5.8022480E-02 -3.7816314E-03
  7.2582580E-02 -2.2565069E-02  0.1038037      3.3684205E-02 -9.6992522E-02
 -9.9315643E-03 -1.0023301E-02 -7.4403482E-03  6.2593301E-03  4.5821074E-02
 -6.8578482E-02  0.1138933     -5.5888504E-02  7.5433470E-02  3.2029033E-02
  4.9894113E-02 -2.6546974E-02 -7.0770398E-02  1.0842526E-02 -0.1122587    
  1.3461391E-02  8.0490246E-02 -8.5550651E-02  4.3316681E-02  0.1186503    
 -0.1316295      9.2660427E-02 -4.5326151E-02 -0.1290786     -4.3053553E-03
 -1.7985282E-02  9.6173942E-02  2.0208161E-02  5.0529897E-02  0.1224212    
 -0.1026826     -6.1550524E-02 -5.4813035E-02  0.1040456      0.2481971    
 -9.8595228E-03  0.1749084     -6.1524142E-02 -1.1934165E-02  0.1555730    
 -9.4824508E-02  3.3544642E-03  4.2671073E-02 -4.7642039E-03  2.4701282E-02
  2.5378263E-02 -0.1186563      3.2279149E-02  3.9443854E-02  4.5293458E-02
 -5.9685830E-02 -4.7801118E-02  9.8076068E-02  7.7270262E-02  6.3939564E-02
 -5.8307685E-02  5.7519790E-02  1.2706493E-03  6.8085012E-03 -3.1364422E-02
 -2.4475202E-02  6.2089767E-02  1.0958056E-02 -2.6534054E-02  2.7724653E-03
 -2.2407785E-02 -5.1466849E-02 -1.9826645E-02  3.4414575E-02  1.9191455E-02
 -7.9370774E-02  1.1680309E-02 -4.4162840E-02 -7.4122101E-02 -3.6166422E-02
 -1.6352870E-02  4.4138697E-03 -7.1937859E-02 -1.3963257E-02 -2.4352815E-02
 -3.1035850E-02  1.4773057E-02  3.9668508E-02 -1.2855620E-02  1.3002376E-02
  2.8751791E-02 -5.7639755E-02 -3.8992550E-02  9.4776548E-02  8.4985448E-03
 -4.0359229E-02 -6.1663508E-02 -3.4284625E-02 -6.3908242E-02  1.0414051E-03
  6.3495040E-02 -2.6892893E-02  9.5683038E-02  4.2655714E-02 -7.4979708E-02
 -2.6778324E-02 -2.1589035E-03 -1.5923077E-02  2.2549465E-02  2.0678611E-02
 -6.4550631E-02  0.1161399     -2.3586238E-02  2.0250527E-02  1.6767658E-02
  1.4486744E-03 -1.0940466E-02 -3.2273870E-02 -3.5699680E-02 -6.0772158E-02
  1.0573297E-02 -1.6840458E-02 -5.2858584E-02 -1.9968881E-03  6.9510184E-02
 -7.9482906E-02  7.3061027E-02  1.4429178E-02 -5.4008089E-02  1.2645945E-02
  3.0076853E-03  8.4998176E-02 -4.4105615E-02 -7.6498841E-03  5.1291637E-02
 -8.4116094E-02 -5.8798091E-03 -2.3152245E-02  7.1674436E-02  0.1172907    
 -1.8555429E-02  5.9174761E-02 -0.1035413      1.9816840E-03  5.3876672E-02
 -3.3085309E-02  7.6036192E-02  2.5199518E-02  6.5797898E-03 -9.7722728E-03
 -3.5736691E-02 -3.8059365E-02 -8.0622971E-02  5.8474154E-03  1.7800301E-02
  3.8794320E-02 -4.8216279E-03 -3.0780835E-02  7.5838007E-02  4.7827657E-02
  7.4536242E-02 -2.4326216E-02  7.4980720E-03  5.6489903E-02  1.5664862E-02
  7.3946692E-02  0.1059525      3.5768729E-02 -5.0663624E-02 -3.7747815E-02
 -6.7039348E-02  9.9174090E-02  0.1402565     -2.3428379E-02  5.0384062E-03
 -4.5518545E-03  5.2383300E-02 -2.6197677E-02  4.4528268E-02  1.9913159E-02
 -1.4805689E-02  6.9512881E-02 -0.1692440     -1.6393118E-02 -6.3879050E-02
 -8.9501955E-02 -3.4566857E-02 -0.1087131      1.5905410E-03  9.1891073E-02
 -6.4621001E-02 -0.1061869     -1.4910463E-02  0.2256513      0.1429246    
 -4.3136612E-02 -5.0602611E-02 -2.7064089E-02 -6.7747794E-02  9.2902845E-03
  5.7078641E-02 -3.1047883E-02  7.8106925E-02  5.2933920E-02 -4.5961529E-02
 -4.3478224E-02  1.3883817E-02 -3.2274380E-02  2.8232742E-02  7.6776645E-03
 -6.3197777E-02  0.1246113     -7.0823268E-03 -1.6929382E-02 -2.0979780E-03
 -2.6162634E-02 -1.9322395E-03  1.1737988E-02 -6.4724781E-02  8.6557725E-03
  3.0212164E-02 -7.3980264E-02 -4.0264979E-02 -8.0061462E-03  1.3705409E-02
 -2.3956271E-02  7.6187119E-02  5.5177420E-02  1.6359458E-02  1.5398268E-02
 -5.2654776E-03  6.6128135E-02 -3.1968802E-02 -1.3258619E-02 -1.3450641E-02
 -5.3677294E-02  7.6851094E-05 -2.0489790E-02  3.4116920E-02 -1.3439571E-02
 -2.0794204E-02 -4.5210086E-02 -8.3077334E-02 -1.1580946E-02 -2.9477309E-02
  3.1392738E-02  6.6454083E-02 -1.4324008E-02 -2.1368379E-02 -8.7502981E-03
 -6.8300925E-02 -1.2600571E-02 -7.0518710E-02 -3.6330570E-02  1.4667758E-02
  7.2712138E-02 -9.9726161E-04 -6.1840780E-02  6.2057856E-02 -1.4939328E-02
  7.6782718E-02 -2.8326500E-02 -1.7496210E-02  3.2665785E-02 -9.5580053E-03
  6.4489029E-02  1.4125252E-02  1.4978551E-02 -5.8692858E-02 -6.8335317E-04
 -4.2651173E-02  5.8708183E-02  0.1733804     -1.1330056E-02 -2.0378038E-02
  7.1612626E-02  1.8753875E-02  3.2552414E-02  7.4924745E-02  2.0858085E-02
  2.1184240E-02  4.5948468E-02 -2.1826478E-02 -5.0781886E-03 -3.0884851E-02
 -2.3782466E-02 -8.6888187E-03 -6.3779160E-02 -1.4855164E-02  9.6092641E-02
 -7.1180038E-02 -6.4401098E-02  6.5479152E-02  6.7086250E-02  7.3967166E-02
 -4.6045721E-02 -3.9934341E-02 -2.0575261E-02 -6.7841969E-02  1.8560311E-02
  5.4051232E-02 -3.2315277E-02  5.8148187E-02  6.2408537E-02 -2.3033671E-02
 -5.0773393E-02  2.8118867E-02 -4.9429338E-02  2.9061170E-02  3.7341719E-03
 -6.0939677E-02  0.1285615      6.2048901E-03 -2.9486282E-02 -1.2927399E-02
 -2.7200487E-02  2.9391258E-03  4.6569910E-02 -6.1425205E-02  6.6182494E-02
  3.9872408E-02 -7.1384303E-02 -4.5096047E-02  8.6285989E-04 -1.3574398E-02
  3.0932941E-03  7.6036565E-02  7.3615938E-02  3.1422690E-02  4.4053136E-03
 -2.3200618E-02  4.6494227E-02 -1.6763322E-02  1.8396656E-03 -2.9045526E-02
 -2.9184343E-02  1.6283616E-02 -2.1453401E-02  2.1520499E-02 -6.1445616E-02
 -4.1016722E-03 -6.7747019E-02 -5.7086028E-02 -2.4375167E-02 -3.1332493E-02
  5.2059170E-02  6.0354020E-02 -4.2954812E-04 -4.5669373E-02  1.2700498E-02
 -6.6026956E-02 -5.5981129E-03 -2.0314179E-02 -2.9181777E-02  1.5464059E-02
  7.5870454E-02 -2.5895432E-02 -3.3116553E-02  1.0312982E-02 -4.3664400E-02
  5.9919711E-03 -7.5234785E-03 -3.5181109E-02  3.0715048E-02 -5.0971273E-02
  4.1168239E-02 -6.4585239E-02  1.0817742E-03 -5.0051533E-02  3.9321866E-02
 -2.2603860E-02 -4.5698989E-02  0.1270708      3.8325749E-02 -5.4055061E-03
  8.1615284E-02 -3.3037546E-03  8.8177305E-03  5.4616984E-02 -1.2422466E-02
  4.4554789E-02 -1.3045806E-02  0.1318313     -1.6626850E-02 -2.3518840E-02
  5.1065631E-02  1.5080079E-02  6.4395137E-02 -5.5673026E-02  2.1998672E-02
 -3.3277284E-02 -2.2591166E-02  8.8415205E-02 -8.2383476E-02 -2.3140933E-02
 -4.7206849E-02 -3.5776287E-02 -1.8776480E-02 -6.6533580E-02  2.1444427E-02
  5.2388661E-02 -3.3132557E-02  4.9523886E-02  6.5349586E-02 -1.3925426E-02
 -5.3326178E-02  3.3002868E-02 -5.3491723E-02  2.7866187E-02  3.2893030E-03
 -5.9535157E-02  0.1254210      6.8603656E-03 -2.7840944E-02 -1.1745747E-02
 -2.5685491E-02  6.1045154E-03  6.3262545E-02 -5.8565341E-02  8.8154353E-02
  5.3191733E-02 -7.6662019E-02 -4.8895173E-02  1.2583964E-02 -1.4283142E-02
  9.3079070E-03  9.0551116E-02  8.2406752E-02  4.0895246E-02 -1.7871361E-03
 -3.1343564E-02  4.6381030E-02 -1.8459372E-02  7.0001837E-03 -4.1486859E-02
 -2.6805259E-02  1.8446352E-02 -1.7970726E-02  9.2345178E-03 -6.3300043E-02
  2.5675939E-03 -6.9970213E-02 -5.3896304E-02 -2.8410736E-02 -2.6798984E-02
  4.4769488E-02  6.5911286E-02  6.3150655E-03 -6.1247319E-02  4.3682273E-02
 -5.7128262E-02 -9.5573468E-03 -3.7966752E-03 -1.2140851E-02  8.9905318E-03
  4.5116208E-02 -2.4722811E-02 -2.8594214E-02 -1.7226757E-02 -7.0173979E-02
 -2.2486575E-02 -2.4766601E-03 -4.2274702E-02  3.1280268E-02 -5.5289425E-02
  3.5877414E-02 -8.3304524E-02 -7.5358120E-03 -2.2712860E-02  5.4839879E-02
 -4.2026313E-03 -0.1002437      6.8280980E-02  7.9294018E-02 -4.8456849E-03
  5.7357840E-02 -6.5248902E-03 -1.8909292E-02  1.6752396E-02 -2.2801353E-02
  3.5633210E-02 -4.9732562E-02  0.1460783      1.5922554E-02  1.9937849E-03
  5.6133900E-02  4.7722217E-02  9.1888823E-02 -4.2166807E-02 -2.5526440E-02
 -2.6489006E-02  3.7349404E-03  4.7065690E-02 -0.1248345     -4.6003070E-02
 -4.6053257E-02 -3.9874453E-02 -2.2614814E-02 -6.6004895E-02  1.5511584E-02
  5.1685814E-02 -3.5360511E-02  5.5477381E-02  6.1758857E-02 -2.0515632E-02
 -5.5187277E-02  2.8027145E-02 -4.1074511E-02  2.5716973E-02  3.7143568E-03
 -5.9804425E-02  0.1169488     -7.9379193E-03 -1.9681968E-02 -7.7891181E-04
 -2.7559532E-02  5.4710209E-03  6.4616062E-02 -7.2638877E-02  7.3606625E-02
  7.1089424E-02 -0.1125197     -4.2704888E-02  2.6707761E-02  2.6659996E-03
 -1.0212933E-03  0.1168528      8.0889486E-02  6.3163742E-02  6.6991299E-03
 -2.1215403E-02  6.7593671E-02 -3.1582393E-02 -4.1100984E-03 -6.4541191E-02
 -5.2049059E-02 -1.0600924E-02 -1.2708274E-02 -1.7111536E-02 -4.2103779E-02
 -1.8756092E-02 -7.9587683E-02 -6.8637133E-02 -3.1518493E-02 -4.0312134E-02
  4.1239437E-02  7.0721380E-02 -2.3486346E-02 -7.1218550E-02  7.5832710E-02
 -5.0729338E-02 -3.2925883E-03 -3.3538774E-02 -3.0999433E-03  1.0890118E-02
 -6.4700725E-03  1.3963586E-02 -6.6047534E-02  8.3588893E-03 -8.0210604E-02
 -5.6935628E-03 -1.4194614E-03 -3.2265771E-02  1.4808321E-02 -5.9297150E-03
  3.7758879E-02 -4.4989355E-02 -1.8980654E-02 -3.3448651E-02  6.6014722E-02
  1.7592898E-02 -8.2641318E-02  4.5950711E-02  0.1096212     -4.2926289E-02
  2.5539974E-02 -2.8475272E-02  2.4210539E-02 -2.0107571E-02 -1.2835544E-02
  2.0763151E-02 -3.6468640E-02  4.6373200E-02  8.0083109E-02  5.2167259E-02
  2.5483290E-02  9.8849021E-02  4.3397546E-02  2.2113280E-02  2.8883055E-02
 -1.9284166E-02  1.9611982E-03 -6.7620198E-03 -9.6635908E-02 -3.8030643E-02
 -4.4737857E-02 -4.3861460E-02 -2.6065404E-02 -6.4528942E-02  1.0791305E-02
  5.0718568E-02 -3.6825679E-02  5.9740741E-02  6.0575489E-02 -2.8597310E-02
 -5.6568235E-02  2.1094291E-02 -3.2208752E-02  2.4961511E-02  4.8734178E-03
 -5.6772146E-02  0.1025868     -1.7660856E-02 -1.1856602E-02  1.3614756E-02
 -2.1947790E-02  2.9468718E-03  6.7910612E-02 -8.9180700E-02  5.9682574E-02
  5.6784701E-02 -0.1266032     -3.6497571E-02  2.7352553E-02  1.1747980E-02
 -1.8917626E-02  0.1020813      5.4200649E-02  7.0998706E-02  2.9532803E-02
 -1.8406115E-02  5.1361367E-02 -5.2619312E-02 -2.5316615E-02 -5.1701315E-02
 -8.6871311E-02 -2.0243607E-02 -7.8371912E-04 -6.2238827E-02  1.3778597E-04
 -3.8109411E-02 -5.5966258E-02 -6.3951947E-02 -2.6412550E-02 -2.8017459E-02
  2.0914692E-02  4.6701532E-02 -5.9807278E-02 -6.3113995E-02  5.6805991E-02
 -1.1674933E-02 -1.9397351E-03 -5.9036266E-02 -1.3499754E-02 -9.3336552E-03
 -3.3392109E-02  5.0210625E-02 -9.0848260E-02  2.6667610E-02 -4.4736370E-02
  1.6929043E-02 -1.8811893E-02 -2.4712367E-02 -1.0167458E-02  8.7203860E-02
  3.3623725E-02  5.5890689E-03 -7.0106387E-03  4.3890770E-03  2.3416048E-02
  4.7978491E-02  2.2145282E-02 -2.9371597E-02  7.8007780E-02 -5.1963307E-02
  1.5717475E-02 -5.0019700E-02  4.6076030E-02 -1.7064642E-02 -1.4182025E-03
  1.2292616E-02 -8.7295035E-03 -7.8754336E-02  0.1055832      3.4623843E-02
 -4.3788597E-02  8.0602556E-02 -2.3470545E-02  8.1120387E-02  5.5073928E-02
 -2.8340584E-03 -9.0459809E-03 -1.2190853E-02  1.5784739E-04  1.1292379E-02
 -4.5669306E-02 -3.9492622E-02 -2.3370972E-02 -6.3222431E-02  1.4665413E-02
  4.8977714E-02 -3.7702784E-02  4.9761038E-02  6.6692218E-02 -2.3253594E-02
 -5.8256101E-02  2.3744257E-02 -4.1574039E-02  2.4612956E-02  3.6366151E-03
 -4.9060222E-02  9.7948454E-02 -9.2172418E-03 -1.3274788E-02  2.0505941E-02
 -8.5326862E-03 -1.4146997E-03  8.2521416E-02 -9.6742049E-02  7.6770321E-02
  2.0713858E-02 -0.1023831     -3.3516288E-02  1.7171904E-02 -2.3423478E-03
 -2.8953837E-02  6.1112460E-02  2.1259630E-02  4.9076345E-02  4.6205897E-02
 -2.9283404E-02 -5.6672413E-03 -6.5459631E-02 -3.4817964E-02 -1.4835210E-02
 -0.1075641      1.6853351E-02  1.2034527E-02 -9.1822818E-02  1.6006354E-02
 -3.5465810E-02 -1.7353462E-02 -2.8385015E-02 -2.8112242E-02  7.6237270E-03
 -3.9196046E-04  1.0477398E-02 -5.3006966E-02 -5.6225318E-02  2.9902849E-02
  4.3976549E-02 -4.6697911E-03 -6.2573448E-02 -2.1685068E-02 -4.4165879E-02
 -2.3460176E-02  4.5674905E-02 -7.8599021E-02  4.0882141E-03  6.9829053E-03
  1.1685703E-02 -7.7083600E-03 -2.6906312E-02 -1.6853560E-02  0.1027761    
  2.2919407E-02  1.1742210E-02  1.2862361E-02  8.4245160E-02 -2.2809085E-02
  6.5318696E-02  0.1019148     -0.1326925      2.9735090E-02 -1.9652784E-02
  2.2529267E-02 -4.2951591E-02 -3.4934387E-03  9.5943874E-03 -7.0367246E-03
 -4.1770344E-03 -2.8202353E-02 -0.1171418      8.2729369E-02 -9.9867927E-03
 -5.8571342E-02  3.5563593E-03 -2.1755690E-02  8.9118190E-02  8.1485873E-03
 -1.0251950E-02  3.0998763E-02  8.9217257E-03  6.8850823E-02  3.5461042E-02
 -4.7019791E-02 -3.3984661E-02 -2.0017287E-02 -6.2126547E-02  2.0378968E-02
  4.9512051E-02 -3.8164817E-02  4.0212482E-02  7.1529604E-02 -1.5204559E-02
 -5.9064128E-02  2.8690040E-02 -5.6912079E-02  2.6945829E-02  3.1202375E-03
 -4.4154119E-02  8.9034736E-02  1.7252647E-03 -2.6047517E-02  1.6103519E-02
 -4.2025893E-04 -6.1552762E-04  0.1001664     -9.8603301E-02  9.4422251E-02
 -1.2161040E-02 -8.3819717E-02 -3.8699422E-02  1.3349827E-02 -1.1742140E-02
 -3.8329128E-02  2.4242956E-02  1.6822008E-02  5.2279193E-02  4.4303779E-02
 -2.5760660E-02 -2.4814639E-02 -6.2536754E-02 -3.8933896E-02  8.1639364E-03
 -0.1109148      3.3394545E-02  5.1560365E-02 -8.8404357E-02  4.3386556E-03
 -3.0589022E-02 -2.2640003E-02  1.3909815E-02 -3.0711392E-02  1.6591419E-02
  2.8035866E-02 -4.9847341E-03 -3.4147806E-02 -6.0478717E-02  4.3626814E-03
  7.1148373E-02 -4.1528931E-03 -4.6935488E-02 -1.4361331E-03 -3.4705471E-02
 -5.0763119E-02  4.3591935E-02 -1.8782517E-02 -3.1890213E-02  5.6245018E-02
 -8.6040767E-03  5.9142992E-02 -1.2570097E-02 -1.9863809E-02  4.3575503E-02
 -1.1250125E-02 -4.7155372E-03 -1.2246117E-02  6.1136242E-02  1.0050564E-02
  5.5201568E-02  6.5740883E-02 -0.1518248      3.0085326E-03  6.1201062E-03
  2.3425457E-03 -7.6743402E-02 -2.1675743E-02  2.0786991E-02 -2.0885747E-02
 -4.0117085E-02 -7.3385509E-03 -0.1116979     -9.5160789E-04 -2.3389267E-02
  3.9032702E-03 -2.1836137E-02 -2.0186316E-02  2.1281295E-02 -2.8168274E-02
  1.5264183E-02  1.3417511E-02 -3.5225179E-02  3.7325229E-02 -7.6166715E-04
 -4.8665740E-02 -2.6367215E-02 -1.5280769E-02 -5.3735625E-02  2.9878601E-02
  4.7888614E-02 -3.5881955E-02  2.9623855E-02  7.1028940E-02 -3.8629808E-03
 -5.5313643E-02  2.9906349E-02 -7.4127361E-02  3.6250118E-02  4.4289082E-03
 -3.6592986E-02  6.4324006E-02  1.2992613E-02 -4.0127087E-02  4.1214442E-03
  1.3453647E-02  2.9605241E-03  0.1126262     -8.3747111E-02  0.1004707    
 -4.3938290E-02 -6.1053876E-02 -4.0052120E-02  1.4453494E-02 -1.9971913E-02
 -3.8940243E-02 -3.0480264E-02  6.7415186E-03  7.6819830E-02  3.7631970E-02
 -2.5227502E-02 -2.8534377E-02 -4.3368105E-02 -3.7006885E-02  2.4220809E-02
 -9.4262481E-02  3.3859279E-02  9.3944922E-02 -6.3333832E-02 -7.1750539E-03
 -2.4404297E-02 -1.8864749E-02  4.6107866E-02 -3.1755947E-02  1.5038657E-02
  4.7092348E-02 -1.5277309E-02 -2.7065704E-02 -5.0728571E-02 -4.3931331E-02
  8.0153920E-02 -6.0222480E-03 -1.0284429E-02  1.9245695E-02 -4.2679789E-03
 -7.6058932E-02  3.6646511E-02  5.1044833E-02 -7.6380737E-02  9.9959873E-02
 -4.4676811E-02  0.1113177      1.7182712E-02 -7.7861305E-03 -1.0207376E-02
 -3.8835905E-02 -2.4257565E-02 -1.5531612E-02 -1.2235979E-02  6.0400195E-02
  1.8834494E-02 -2.7655615E-02 -0.1236998     -2.5694022E-02  4.4139395E-03
 -2.9400831E-02 -0.1130488     -6.0419808E-04  2.3784829E-02 -2.7845779E-02
 -6.0952015E-02  1.8880347E-02 -0.1117377     -0.1214598     -9.3804328E-03
  2.8825140E-02 -2.8060593E-02 -2.8779062E-02 -6.3470453E-02 -8.2414731E-02
  4.4828318E-02 -7.2769508E-02 -9.0614438E-02 -3.6572587E-02 -6.7189485E-02
 -5.1385477E-02 -1.5363465E-02 -8.5799620E-03 -4.1648984E-02  4.3788642E-02
  4.5285035E-02 -3.0532345E-02  1.4295189E-02  6.5599822E-02  1.3213046E-02
 -4.6603095E-02  2.7395481E-02 -9.2196614E-02  4.7011245E-02  2.6402581E-03
 -2.9562725E-02  3.8329035E-02  2.5031053E-02 -4.4635020E-02 -1.0366430E-02
  3.6735322E-02  3.3761461E-03  0.1121109     -4.9666137E-02  9.4924375E-02
 -4.8275933E-02 -2.7542287E-02 -3.1348497E-02  2.7350446E-02 -1.8754529E-02
 -3.6653228E-02 -5.9897948E-02 -3.4280963E-02  8.4413789E-02  6.4782281E-03
 -2.0548116E-02 -1.6411059E-02 -1.3417410E-02 -9.9793877E-03  3.0763777E-02
 -5.3595256E-02  8.5124420E-03  9.6315630E-02 -3.5271373E-02 -2.0963155E-02
 -2.9618362E-02 -1.2070017E-03  4.7578447E-02 -3.6933169E-02  2.1767067E-02
  3.1157533E-02 -7.0765461E-03 -2.1090189E-02 -3.1612605E-02 -5.2078847E-02
  0.1079924     -1.4189331E-02  4.2386722E-02  5.0626747E-02  3.7697136E-02
 -4.6589009E-02  3.3589497E-02  8.5861273E-02 -0.1023852      9.8420329E-02
 -6.2146377E-02  8.3103403E-02  6.6249862E-02  2.9090481E-02 -3.7511468E-02
 -2.0910721E-02 -5.1880624E-02 -8.8072885E-03 -2.2543633E-02  6.8655372E-02
 -3.3987671E-02 -2.7508061E-02 -8.3183080E-02 -6.4393610E-02  1.1191320E-02
 -3.5471860E-02 -0.1013438     -2.1469904E-02  1.2013065E-02  4.5623775E-03
 -5.4315295E-02  2.0819104E-03 -4.8662279E-02 -0.1239455      1.3650899E-02
  4.5593483E-03 -4.3238547E-02 -1.7994666E-02 -3.0401682E-02 -0.1178732    
  2.0710502E-02 -2.5758171E-02 -8.8848718E-02 -3.6132339E-02 -3.0873088E-02
 -5.3684957E-02 -5.0013168E-03 -1.6638017E-03 -2.4579255E-02  5.6566820E-02
  4.0194683E-02 -2.5034126E-02  3.7180423E-03  5.2048549E-02  2.5570769E-02
 -3.5255268E-02  1.6064890E-02 -0.1018732      5.8282711E-02  9.4625534E-04
 -1.8378008E-02  1.1118889E-02  2.1997787E-02 -4.3609351E-02 -2.6150150E-02
  5.4456551E-02  1.1380583E-03  9.1356412E-02 -1.5569620E-02  6.5576136E-02
 -3.0357700E-02 -1.2218652E-02 -1.3544006E-02  4.5567926E-02 -4.0202285E-03
 -3.4519996E-02 -6.8037160E-02 -7.0323907E-02  8.1011325E-02 -7.5289826E-03
 -6.6197463E-03  4.8449002E-03  1.6723828E-02  2.7933305E-02  2.0979641E-02
 -7.9738237E-03 -2.4461078E-02  7.4878745E-02 -5.3240261E-03 -2.6730295E-02
 -4.3720528E-02  2.2983490E-02  2.0014409E-02 -3.7463352E-02  2.5974793E-02
  9.1814185E-03  1.4415264E-02 -1.3210017E-02  4.3718054E-04 -5.4598156E-02
  0.1087869     -1.2036175E-02  6.1383899E-02  6.9908217E-02  5.7061136E-02
  1.1798859E-02  2.9425632E-02  8.5209914E-02 -7.3618397E-02  6.6270150E-02
 -5.5836365E-02  1.2354274E-02  0.1012916      6.1207186E-02 -4.4101022E-02
  1.3846441E-02 -6.3348800E-02 -1.3055709E-02 -2.0878427E-03  4.6009690E-02
 -7.4502252E-02  1.8897338E-02 -4.2269241E-02 -8.2513176E-02  3.2209225E-02
 -9.7048748E-03 -6.0540829E-02 -3.0392060E-02  2.1755815E-02  4.9867354E-02
 -2.3302015E-02 -4.0302344E-02  1.8333461E-02 -6.1806619E-02  2.3917045E-02
 -2.4303159E-02 -4.9661204E-02  1.4381717E-02  4.3331560E-02 -0.1038455    
 -6.6175463E-04  4.5813669E-02 -1.2405967E-02  1.9899372E-02  4.2950045E-02
 -5.4879177E-02  1.2435633E-03  2.6514677E-03 -1.0859058E-02  6.3952744E-02
